3
47.007190704345703 30.014820098876953 14.384309768676758 
111.13870239257812 41.084449768066406 12.63424015045166 
1.5907700061798096 41.042800903320312 35.835071563720703 
97.809738159179688 13.42156982421875 20.426889419555664 
22.607900619506836 40.040321350097656 15.149089813232422 
19.139720916748047 13.42156982421875 33.573421478271484 
89.161018371582031 40.782470703125 5.7614221572875977 
26.724140167236328 40.868511199951172 16.905649185180664 
15.880579948425293 41.411739349365234 22.431499481201172 
25.830539703369141 30.086549758911133 21.756790161132812 
33.081939697265625 40.039051055908203 10.595950126647949 
70.1829833984375 40.993228912353516 8.1360416412353516 
65.257522583007812 40.491161346435547 4.8300848007202148 
49.163131713867188 41.229801177978516 9.6445302963256836 
10.399270057678223 40.679790496826172 23.346990585327148 
20.402019500732422 37.0189208984375 21.987239837646484 
60.514999389648438 41.218021392822266 8.2881956100463867 
70.916236877441406 30.433290481567383 12.011770248413086 
57.081920623779297 37.78302001953125 10.014019966125488 
97.83294677734375 37.430931091308594 13.10336971282959 
47.007190704345703 13.42156982421875 20.556999206542969 
46.523128509521484 40.132869720458984 6.9395380020141602 
33.537269592285156 36.333759307861328 15.836359977722168 
85.466262817382812 41.150848388671875 8.6300907135009766 
82.3568115234375 34.712608337402344 10.858369827270508 
10.296299934387207 41.008110046386719 27.998479843139648 
75.135147094726562 40.760231018066406 4.8321261405944824 
39.913749694824219 41.080360412597656 11.869379997253418 
47.001529693603516 37.870441436767578 11.468720436096191 
5.6712827682495117 41.317188262939453 28.713619232177734 
9.4484949111938477 33.422588348388672 32.984058380126953 
76.957206726074219 13.42156982421875 18.317630767822266 
97.219100952148438 31.962839126586914 13.513540267944336 
86.688766479492188 23.641319274902344 15.253589630126953 
70.804718017578125 37.635360717773438 9.3908443450927734 
13.396160125732422 37.728660583496094 26.842849731445312 
102.64189910888672 41.026359558105469 7.7799158096313477 
97.3232421875 36.791969299316406 11.752670288085938 
104.21299743652344 37.78302001953125 12.546899795532227 
93.348243713378906 41.075611114501953 9.547429084777832 
99.417922973632812 37.78302001953125 11.707839965820312 
93.210983276367188 37.515338897705078 10.909780502319336 
99.494667053222656 40.941471099853516 10.535360336303711 
97.217880249023438 38.937278747558594 10.94849967956543 
88.449142456054688 39.167621612548828 9.7449436187744141 
104.86329650878906 41.351398468017578 10.977270126342773 
92.796493530273438 29.084150314331055 13.95149040222168 
98.40032958984375 41.3165283203125 7.4426321983337402 
26.834650039672852 38.287651062011719 17.910369873046875 
21.940729141235352 41.412250518798828 18.533540725708008 
53.350559234619141 40.773868560791016 5.8537130355834961 
110.52089691162109 41.416709899902344 10.043689727783203 
109.23979949951172 38.764228820800781 13.172450065612793 
39.486671447753906 37.98931884765625 13.246569633483887 
15.215020179748535 28.347440719604492 29.784870147705078 
31.915550231933594 41.413639068603516 13.827139854431152 
97.809738159179688 35.822879791259766 12.17350959777832 
95.660331726074219 34.734340667724609 12.26609992980957 
