3
0.2793535888195038	5.039787769317627	10.593660354614258
-11.443929672241211	-8.026104927062988	15.014490127563477
11.30031967163086	-8.176156997680664	15.016449928283691
-0.27266138792037964	10.065070152282715	15.448809623718262
-6.013901233673096	-5.867849826812744	9.20986557006836
-9.01075553894043	1.731909990310669	13.727120399475098
7.49006986618042	5.036934852600098	14.402680397033691
11.723259925842285	2.675600051879883	15.253569602966309
-12.277839660644531	1.1294670104980469	15.259699821472168
-5.216526985168457	1.4141819477081299	9.159113883972168
5.3989057540893555	1.3388550281524658	9.24032211303711
9.481878280639648	-3.364748954772949	13.298830032348633
-10.062390327453613	-6.127110958099365	14.454560279846191
5.678837776184082	8.99123764038086	15.260600090026855
-10.298609733581543	-8.82534408569336	13.49114990234375
-12.698390007019043	-4.131515979766846	15.258379936218262
9.417813301086426	-7.434336185455322	14.103429794311523
10.470760345458984	-8.879820823669434	13.836770057678223
12.478830337524414	-5.273531913757324	15.269439697265625
11.690110206604004	-1.5108120441436768	15.19340991973877
5.93212890625	-5.846428871154785	9.115827560424805
-10.350689888000488	-7.9506449699401855	14.848329544067383
-7.089497089385986	8.176793098449707	15.260600090026855
-5.775704860687256	6.597858905792236	14.509519577026367
-11.670089721679688	-1.6980879306793213	15.17527961730957
-9.574069023132324	4.302969932556152	15.193400382995605
-6.60661506652832	-2.902853012084961	9.268960952758789
4.857522010803223	8.163810729980469	15.175430297851562
3.5054030418395996	6.729540824890137	13.602899551391602
-7.536231994628906	-6.446640968322754	11.734580039978027
12.698390007019043	-0.8158529996871948	15.258379936218262
-10.304619789123535	5.1097412109375	15.260600090026855
7.514408111572266	7.542087078094482	15.448809623718262
-7.767724990844727	4.0487141609191895	13.891480445861816
-8.558748245239258	6.665781021118164	15.448809623718262
-5.536689758300781	8.752260208129883	15.448809623718262
-3.0192689895629883	9.959239959716797	15.260600090026855
8.661894798278809	6.958653926849365	15.258379936218262
9.936817169189453	5.152360916137695	15.448809623718262
11.945819854736328	1.29386305809021	15.448809623718262
10.237950325012207	-0.6828919053077698	14.145370483398438
9.528788566589355	-5.934121131896973	13.886480331420898