3
15.223228	-0.02622	-3.699642
-19.349422	16.107832	-9.280187
-14.514146	-19.890797	-9.119384
-14.919809	-10.846123	0
-19.967371	-3.674948	-9.299389
-0.761169	-16.536634	-6.724704
6.718787	19.884918	-9.695406
11.435521	14.789496	0
-5.030481	15.224659	-3.708101
17.944414	-18.098509	-8.544037
19.884918	7.894344	-9.695406
12.214561	-14.482825	0
9.939247	-15.844151	-5.802625
-12.736863	14.184444	0
-15.476128	6.33086	-4.859476
15.907757	-9.592243	-5.907955
18.098509	17.944414	-8.544037
10.324113	15.878643	-5.861238
-15.612578	-7.382008	-5.287284
-7.433774	-15	0
19.718449	0.168292	-8.087093
-3.223704	19.718449	-8.087093
-7.894344	19.884918	-9.695406
-13.892499	19.675879	-8.087093
0.591927	16.013836	-6.078187
-13.42742	15.942466	-6.697953
-19.550188	-14.623332	-8.087093
0.932437	-19.718449	-8.087093
7.894344	-19.884918	-9.695406
9.341999	-19.718449	-8.087093
14.826704	-11.463476	-1.729183
12.864323	-19.975935	-9.258255
-19.718449	6.436976	-8.087093
-19.884918	6.718787	-9.695406
-17.461399	5.390978	-7.385332
-16.82832	9.739559	-6.978146
-19.718449	1.368926	-8.087093
-19.718449	11.295568	-8.087093
-15	-0.128021	0
7.069181	19.718449	-8.087093
6.786534	16.594759	-6.775209
-6.027578	16.89213	-7.033136
10.08818	15.176795	-3.371671
3.634768	19.718449	-8.087093
4.981792	17.836538	-7.563264
15.595004	13.12291	-6.273632
-7.828256	19.718449	-8.087093
-14.597192	12.576056	-3.700348
-9.785252	17.783741	-7.543779
19.718449	8.544162	-8.087093
16.126043	6.999612	-6.25466
19.975935	12.864323	-9.258255
15.052999	6.039742	-2.005562
19.718449	4.780208	-8.087093
-15.236326	-14.282685	-6.570181
19.466923	-15.537863	-9.695406
19.718449	-10.508495	-8.087093
19.884918	-6.718787	-9.695406
15.223879	-15.688236	-7.196241
11.947735	-14.903687	-3.759923
19.718449	-5.760283	-8.087093
16.791494	-4.291521	-6.946148
16.89361	2.118259	-7.034104
17.783743	9.090848	-7.54378
15.077338	11.260761	-3.588964
3.251477	15.223386	-3.700571
-6.718787	-19.884918	-9.695406
-7.069181	-19.718449	-8.087093
-8.096083	-16.564734	-6.74912
-11.10375	-15.04905	-3.177964
-2.113029	-15.143238	-3.096551
3.853191	-16.572924	-6.756235
-19.336615	-16.145523	-9.266795
-19.977978	-11.530312	-9.248439
-19.718449	-7.828256	-8.087093
-16.904388	-0.131819	-7.041158
5.51896	-19.718449	-8.087093
4.090453	-15.225037	-3.71033
19.441729	-15.032717	-8.087093
17.71109	-12.961177	-7.554047
-19.884918	-7.894344	-9.695406
-17.331364	-9.537843	-7.320556
-17.783758	-6.344033	-7.543786
3.085729	-19.977991	-9.248379
7.046912	-17.783754	-7.543784
-1.185652	19.982101	-9.228639
19.982101	1.185652	-9.228639
-4.792087	15	0
-3.634768	-19.718449	-8.087093
-5.586687	-17.891474	-7.583539
-11.179749	-17.320826	-7.31366
12.974739	19.718449	-8.087093
15.537863	19.466923	-9.695406
13.891418	17.018488	-7.391145
10.829304	19.973003	-9.272334
-19.718449	-4.780208	-8.087093
-2.457528	-19.988567	-9.197581
-15.069416	19.756723	-9.106997
-10.872345	15.392753	-4.703631
-17.907648	17.6761	-8.087093
-16.588387	15.86082	-7.62589
-19.441729	15.032717	-8.087093
18.763893	17.131954	-9.258018
-17.058252	-18.427046	-8.087093
-17.878826	-14.234076	-7.713428
-11.295568	-19.718449	-8.087093
-10.832022	-19.972754	-9.273532
-15.343787	-17.515772	-7.746707
-15.313013	-0.053801	-4.213036
4.792087	-15	0
-19.967211	12.734537	-9.300158
-18.276882	12.588093	-7.727162
18.253643	5.821359	-7.717078
17.85478	-0.726116	-7.569997
17.635061	-7.031047	-7.47072
19.972643	-3.143739	-9.274072
8.649151	17.888964	-7.582613
10.757996	-18.252916	-7.716877
13.892499	-19.675879	-8.087093
15.241675	-18.122618	-7.854679
-10.075308	19.718449	-8.087093
-2.943272	17.80802	-7.552739
-0.168292	19.718449	-8.087093
1.084372	18.37804	-7.751449
3.143739	19.972643	-9.274072
-11.525176	19.980877	-9.234522
-13.539741	18.082056	-7.712626
-19.718449	-10.075308	-8.087093
19.550188	14.623332	-8.087093
17.453777	15.43233	-7.74685
-17.055387	-18.849335	-9.080293
0.975283	-18.387283	-7.754004
9.772166	19.718449	-8.087093
11.718853	18.343245	-7.741835
19.972754	-10.832022	-9.273532
18.370081	-10.339762	-7.749249
18.263	-15.208561	-7.875456
17.131954	-18.763893	-9.258018
19.718449	-8.247017	-8.087093
-18.3734	7.496542	-7.750167
-19.972643	3.143739	-9.274072