3
47.0071907043457	30.469079971313477	55.022220611572266
112.7416000366211	41.42156982421875	58.11629104614258
3.181792974472046	41.42156982421875	36.50333023071289
93.96869659423828	13.42156982421875	49.37363052368164
23.058719635009766	40.69794845581055	54.36513137817383
19.72821044921875	13.42156982421875	36.18267059326172
24.33510971069336	40.64020919799805	51.024131774902344
65.0318832397461	41.12226104736328	61.0978889465332
20.954509735107422	30.744529724121094	44.89308166503906
83.29141998291016	41.13475036621094	63.76424026489258
28.437990188598633	35.12253952026367	50.803871154785156
36.99850845336914	41.410560607910156	57.12593078613281
47.19491958618164	41.17610168457031	62.11922073364258
97.95889282226562	37.63911056518555	56.343570709228516
37.79423904418945	13.42156982421875	46.06888961791992
99.32872009277344	40.35206985473633	62.21210861206055
96.99725341796875	28.577760696411133	54.51694107055664
71.36431884765625	30.835060119628906	57.36431884765625
64.87552642822266	41.10512924194336	64.12869262695312
64.30201721191406	37.78302001953125	59.74810028076172
58.026519775390625	41.01723098754883	60.55070114135742
97.12886810302734	34.95545959472656	56.8442497253418
105.18579864501953	37.78302001953125	56.516719818115234
91.48945617675781	41.15047073364258	59.9865608215332
104.93219757080078	41.278221130371094	58.089141845703125
85.643310546875	35.01155090332031	58.22705841064453
108.25779724121094	40.590518951416016	60.59537887573242
99.26193237304688	38.639339447021484	57.868900299072266
95.3663330078125	37.900760650634766	58.17469024658203
75.28608703613281	41.37858963012695	61.58142852783203
71.18846893310547	14.686690330505371	51.48973083496094
9.713144302368164	41.10675048828125	44.96900177001953
12.553489685058594	40.837440490722656	43.18544006347656
13.589909553527832	36.07569885253906	41.77791976928711
99.99656677246094	40.75606918334961	58.52151107788086
19.89780044555664	38.00196838378906	47.34938049316406
34.15256881713867	40.59495162963867	59.07508850097656
40.01768112182617	36.67171859741211	55.6497917175293
31.246530532836914	41.401851654052734	55.05141067504883
33.99578094482422	26.871610641479492	49.89033889770508
74.6957015991211	36.844261169433594	59.51837158203125
33.507469177246094	38.05651092529297	54.063968658447266
95.9254379272461	41.25947952270508	59.550010681152344
93.58718872070312	32.930580139160156	56.59674072265625
73.83975982666016	41.21220016479492	64.09742736816406
97.83463287353516	37.43880081176758	57.6556282043457
100.5261001586914	37.78302001953125	57.35097122192383
97.61459350585938	39.28820037841797	58.366798400878906
18.507549285888672	41.42156982421875	48.79256057739258
8.672319412231445	41.25157928466797	39.94205856323242
8.95147705078125	37.386260986328125	37.87044143676758
11.668789863586426	25.860939025878906	34.618900299072266
4.641765117645264	41.06808853149414	39.79981994628906