3
48.21030044555664	53.8765983581543	-59.03580093383789
7.225470066070557	64.63059997558594	-92.78910064697266
87.14730072021484	71.70819854736328	-26.37649917602539
71.19239807128906	29.42690086364746	-47.726200103759766
58.794700622558594	73.62989807128906	-51.22380065917969
77.51820373535156	34.0880012512207	-38.35580062866211
85.93599700927734	39.21160125732422	-34.257598876953125
31.52280044555664	27.576200485229492	-76.22830200195312
46.312400817871094	75.15489959716797	-57.77619934082031
58.00600051879883	33.99679946899414	-53.096099853515625
19.026100158691406	69.76570129394531	-83.92949676513672
13.437299728393555	69.8115005493164	-84.74009704589844
11.33180046081543	48.289398193359375	-89.54660034179688
22.83919906616211	64.18250274658203	-78.12590026855469
10.353899955749512	71.3917007446289	-89.47660064697266
56.24330139160156	73.643798828125	-49.77640151977539
69.53060150146484	55.05839920043945	-41.76380157470703
58.872398376464844	65.75440216064453	-48.797298431396484
53.691001892089844	71.45939636230469	-54.081199645996094
36.193599700927734	70.43440246582031	-66.3104019165039
87.75700378417969	51.95909881591797	-27.960899353027344
55.285701751708984	74.3667984008789	-51.6963005065918
76.14569854736328	75.95439910888672	-33.99140167236328
55.49610137939453	73.2936019897461	-50.668800354003906
25.80500030517578	49.732601165771484	-77.62190246582031
13.739500045776367	61.89289855957031	-85.76969909667969
79.6333999633789	65.11669921875	-32.263301849365234
45.990501403808594	65.74749755859375	-59.12260055541992
50.2578010559082	73.08110046386719	-56.3140983581543
54.490501403808594	71.01909637451172	-51.876800537109375
65.28939819335938	67.08039855957031	-43.78239822387695
69.38670349121094	29.756200790405273	-45.66809844970703
60.1952018737793	46.20880126953125	-50.40190124511719
54.403099060058594	60.63520050048828	-53.1172981262207
72.43569946289062	41.11320114135742	-41.32490158081055
57.637001037597656	52.81890106201172	-51.581600189208984
40.62179946899414	40.122398376464844	-66.9677963256836
66.95020294189453	36.89179992675781	-46.32590103149414
64.96080017089844	45.967098236083984	-46.642398834228516
81.99250030517578	46.468101501464844	-32.95640182495117
51.976200103759766	44.01350021362305	-56.7328987121582
63.60879898071289	51.28450012207031	-46.97949981689453
52.793701171875	52.536399841308594	-55.541099548339844
27.045700073242188	36.761199951171875	-78.32319641113281
78.55899810791016	39.354400634765625	-36.64120101928711
74.92030334472656	48.7484016418457	-38.31589889526367
71.45230102539062	34.33539962768555	-43.10919952392578
64.27999877929688	58.05099868774414	-45.505001068115234