3
-0.028394000604748726 0.72762900590896606 -0.079485997557640076 
0.10196000337600708 0.9683459997177124 0.14866100251674652 
0.07987000048160553 0.461201012134552 0.10405600070953369 
-0.14229699969291687 0.96901297569274902 0.092419996857643127 
0.056804999709129333 0.97373497486114502 -0.1802469938993454 
0.076403997838497162 0.80149602890014648 0.050771001726388931 
0.18386800587177277 0.96497398614883423 -0.052331998944282532 
-0.11703299731016159 0.77881097793579102 0.021630000323057175 
0.082231998443603516 0.60309302806854248 -0.036240000277757645 
-0.057712998241186142 0.53579401969909668 0.082795999944210052 
-0.0011780000058934093 0.79585498571395874 0.071681998670101166 
-0.15346600115299225 0.96635901927947998 -0.081725999712944031 
-0.08491399884223938 0.49802601337432861 -0.081857003271579742 
0.028640000149607658 0.71607398986816406 0.078192003071308136 
0.0093590002506971359 0.88156300783157349 0.13980400562286377 
0.056469999253749847 0.57874900102615356 0.064133003354072571 
-0.14858299493789673 0.82023900747299194 -0.05302799865603447 
-0.086145997047424316 0.84898197650909424 -0.083623997867107391 
-0.13703800737857819 0.88255500793457031 -0.020106999203562737 
-0.085294000804424286 0.70796698331832886 -0.040330000221729279 
-0.045733999460935593 0.88721799850463867 -0.1475369930267334 
-0.023163000121712685 0.97425001859664917 0.17067000269889832 
-0.051766999065876007 0.63508498668670654 -0.091440998017787933 
0.0043589998967945576 0.57595199346542358 -0.092221997678279877 
0.043134000152349472 0.46700200438499451 -0.1292250007390976 
-0.069247998297214508 0.76623398065567017 -0.096989996731281281 
-0.050788998603820801 0.79117298126220703 -0.085349000990390778 
-0.062392000108957291 0.97348397970199585 -0.17165699601173401 
-0.062132000923156738 0.73309600353240967 -0.063707999885082245 
-0.1295509934425354 0.79505401849746704 -0.052822001278400421 
-0.098537996411323547 0.72282499074935913 -0.064773999154567719 
-0.085472002625465393 0.68018198013305664 -0.047049000859260559 
-0.095161996781826019 0.60580497980117798 -0.0078999996185302734 
-0.10343000292778015 0.75187802314758301 -0.072213001549243927 
-0.10452999919652939 0.69876199960708618 -0.007817000150680542 
-0.11971300095319748 0.45369398593902588 0.074086003005504608 
-0.11774799972772598 0.85842102766036987 0.06736300140619278 
-0.079163998365402222 0.85483700037002563 0.076228998601436615 
-0.26365214083821542 -0.77915573635135449 -0.24008085446963834 
-0.46524428327101514 0.44059605682626191 0.32712285842638522 
0.25798266944911463 -0.75612262590494439 0.27703672999702372 
0.28295842097770119 0.45724363644585114 -0.47235126254665538 
