3
-0.46849629282951355	4.6265788078308105	9.993783950805664
11.30031967163086	-8.176156997680664	15.016449928283691
-11.443929672241211	-8.026104927062988	15.014490127563477
-6.599287033081055	-6.235140800476074	2.5540361404418945
6.001431941986084	-6.033644199371338	8.714418411254883
-6.013901233673096	-5.867849826812744	9.20986557006836
3.2389841079711914	9.614139556884766	15.448809623718262
6.646350860595703	-6.225712776184082	2.601722002029419
-4.916711807250977	9.04186725616455	15.448809623718262
12.698390007019043	-0.8158529996871948	15.258379936218262
-7.834292888641357	-7.427637100219727	8.408699989318848
-12.478890419006348	0.32626309990882874	15.269379615783691
-6.572103023529053	-1.878006935119629	9.241668701171875
-7.779913902282715	2.891219139099121	13.221819877624512
6.667473793029785	-1.598433017730713	9.403999328613281
7.779333114624023	-7.429906845092773	8.417204856872559
8.109135627746582	2.9244279861450195	13.518110275268555
8.194005966186523	-7.565336227416992	12.371919631958008
-8.863697052001953	-7.960385799407959	13.116020202636719
-8.584273338317871	-4.31357479095459	12.368370056152344
-9.98780632019043	-8.600164413452148	12.097180366516113
-12.449319839477539	-5.114185810089111	15.316960334777832
8.43348503112793	-4.66908073425293	12.301139831542969
9.511844635009766	-8.457194328308105	11.582280158996582
12.276860237121582	-6.075387001037598	15.260600090026855
9.257597923278809	6.357540130615234	15.260600090026855
-10.304619789123535	5.1097412109375	15.260600090026855
11.683130264282227	-2.8737220764160156	15.161620140075684
-11.670089721679688	-1.6980879306793213	15.17527961730957
-9.531831741333008	-6.410219192504883	13.993610382080078
9.164375305175781	-6.510666847229004	13.648340225219727
-10.701029777526855	2.246541976928711	15.17527961730957
11.23157024383545	0.7888981103897095	15.17527961730957
7.129402160644531	6.822826862335205	15.182809829711914
5.678837776184082	8.99123764038086	15.260600090026855
0.5903851985931396	10.301750183105469	15.269439697265625
-0.9758062958717346	9.253070831298828	15.2056303024292
3.1658949851989746	6.775791168212891	13.532950401306152
-6.5037078857421875	-4.357101917266846	9.492170333862305
-6.392269134521484	-6.331322193145752	6.940296173095703
-8.290277481079102	5.88474178314209	15.207329750061035
-11.02808952331543	-8.301297187805176	15.093649864196777
-10.343779563903809	-8.354757308959961	14.460539817810059
-11.706819534301758	-6.96133279800415	15.404419898986816
-10.734729766845703	-7.461359024047852	15.020440101623535
6.364293098449707	-4.288753032684326	9.262965202331543
6.315209865570068	-6.242977142333984	6.656027793884277
-7.089497089385986	8.176793098449707	15.260600090026855
-3.282197952270508	7.091855049133301	13.8745698928833
-3.0192689895629883	9.959239959716797	15.260600090026855
10.350689888000488	-7.95064115524292	14.849550247192383