3
0.40771439671516418 6.13909912109375 6.4157819747924805 
-9.2460941775966745 -8.3162709650481297 14.834345099858323 
9.6639265281310891 -8.4331482200285333 14.985272803739402 
-6.4606437683105469 -6.1267890930175781 0.12613239884376526 
6.8107671737670898 -6.040834903717041 1.3598769903182983 
-8.1390291388661176 -7.3184727489296932 8.0575884148560508 
-10.684361385224902 -0.079110503751400815 13.092645564565895 
-5.1284370422363281 9.2058286666870117 15.286800384521484 
1.3095179796218872 4.8411831855773926 0.086069852113723755 
2.014430046081543 9.7599382400512695 13.220120429992676 
9.7299580172226232 4.6312501043277701 15.34620095790712 
7.9224016986673913 -6.8302815391137299 6.2716771086404162 
10.631962205378494 -2.3432930827724867 13.344159066252057 
7.0695481300354004 1.3032009601593018 4.4408431053161621 
-7.0645389556884766 1.2436989545822144 4.331934928894043 
-11.126291515582295 -1.4440444362722311 15.287252065150197 
-6.7636909484863281 1.2302559614181519 0.91153228282928467 
9.9686019660648313 -4.4261006943094889 15.336783586569279 
10.327277560742806 -0.21669685637614797 8.4293758889464225 
3.5788378715515137 9.7698373794555664 15.286800384521484 
8.3011665344238281 7.4079489707946777 14.471159934997559 
4.6020369529724121 6.9917159080505371 10.180399894714355 
-5.3241438865661621 5.3590478897094727 8.4244394302368164 
-10.223843188345047 0.2311286209853938 10.489983369205243 
-11.205358863832901 -4.3992212907619646 14.440745200285878 
-8.287841796875 7.4188241958618164 14.471179962158203 
-8.81378173828125 6.747438907623291 15.286800384521484 
-10.267817637419276 3.7837649409259093 14.355846504248452 
-8.1884307861328125 6.0686759948730469 12.252400398254395 
-10.436880429723573 -5.8463284950576497 15.16241622162098 
-11.188447478829438 -3.9522465999065099 12.082968478397889 
10.49419750896975 3.8430676048594283 14.506600683318311 
10.631540298461914 2.7123551368713379 12.248160362243652 
10.50527195960837 0.5773817331752088 15.347330014536603 
-9.0555601976643736 -5.4577986598146309 7.2958434151825715 
-2.3929018974304199 10.192770004272461 14.444069862365723 
-2.5957109928131104 8.3930692672729492 11.162529945373535 
-0.82452398538589478 10.255499839782715 15.286800384521484 
6.5618071556091309 1.579928994178772 0.91152858734130859 
0.48782416209772678 8.946732916119764 23.471560590919918 
